# .PCD v.7 - Point Cloud Data file format
VERSION .7
FIELDS x y z rgb
SIZE 4 4 4 4
TYPE F F F F
COUNT 1 1 1 1
WIDTH 1167
HEIGHT 1
POINTS 1167
DATA ascii
-0.664546 0.062667 2.978830 7.302399e-39
-0.664735 0.062890 2.989443 7.302399e-39
-0.664814 0.063105 2.999625 7.302399e-39
-0.666873 0.063509 3.018841 7.394595e-39
-0.669473 0.063967 3.040639 7.486790e-39
-0.671922 0.064415 3.061892 7.486790e-39
-0.674318 0.064860 3.083048 7.486790e-39
-0.676057 0.065244 3.101328 7.486790e-39
-0.677073 0.065561 3.116405 7.486790e-39
-0.656607 0.063237 2.905294 7.302399e-39
-0.657751 0.063552 2.919766 7.302399e-39
-0.659793 0.063956 2.938332 7.302399e-39
-0.661608 0.064341 2.956007 7.302399e-39
-0.662723 0.064660 2.970661 7.302399e-39
-0.663388 0.064937 2.983386 7.302399e-39
-0.663933 0.065204 2.995649 7.302399e-39
-0.665919 0.065614 3.014524 7.302399e-39
-0.668311 0.066068 3.035362 7.486790e-39
-0.670564 0.066511 3.055707 7.486790e-39
-0.672749 0.066950 3.075872 7.486790e-39
-0.674379 0.067336 3.093633 7.486790e-39
-0.675285 0.067653 3.108177 7.486790e-39
-0.672989 0.067650 3.108032 7.486790e-39
-0.658724 0.065354 2.905294 7.302399e-39
-0.656607 0.065354 2.905294 7.302399e-39
-0.656950 0.065599 2.916209 7.394595e-39
-0.658424 0.065960 2.932237 7.394595e-39
-0.659968 0.066330 2.948681 7.394595e-39
-0.661190 0.066669 2.963789 7.394595e-39
-0.662154 0.066985 2.977836 7.302399e-39
-0.663068 0.067298 2.991746 7.302399e-39
-0.664989 0.067716 3.010310 7.302399e-39
-0.667190 0.068165 3.030270 7.394595e-39
-0.669236 0.068601 3.049655 7.486790e-39
-0.671214 0.069033 3.068856 7.486790e-39
-0.672705 0.069417 3.085954 7.394595e-39
-0.673495 0.069732 3.099936 7.394595e-39
-0.671206 0.069729 3.099795 7.394595e-39
-0.658470 0.067444 2.904173 7.302399e-39
-0.656492 0.067459 2.904785 7.394595e-39
-0.656424 0.067670 2.913876 7.394595e-39
-0.657529 0.068003 2.928251 7.302399e-39
-0.658804 0.068357 2.943482 7.302399e-39
-0.659991 0.068704 2.958414 7.302399e-39
-0.661130 0.069048 2.973230 7.302399e-39
-0.662286 0.069396 2.988220 7.210203e-39
-0.664133 0.069819 3.006437 7.302399e-39
-0.666113 0.070259 3.025376 7.394595e-39
-0.667988 0.070691 3.043965 7.394595e-39
-0.669774 0.071116 3.062272 7.394595e-39
-0.671144 0.071499 3.078790 7.302399e-39
-0.671878 0.071818 3.092494 7.210203e-39
-0.669779 0.071834 3.093207 7.302399e-39
-0.658484 0.069339 2.894933 7.302399e-39
-0.657381 0.069445 2.899369 7.302399e-39
-0.655983 0.069521 2.902531 7.394595e-39
-0.655927 0.069740 2.911672 7.394595e-39
-0.656900 0.070070 2.925449 7.394595e-39
-0.658097 0.070426 2.940323 7.394595e-39
-0.659284 0.070783 2.955243 7.394595e-39
-0.660466 0.071143 2.970244 7.302399e-39
-0.661726 0.071513 2.985691 7.302399e-39
-0.663455 0.071936 3.003367 7.302399e-39
-0.665286 0.072373 3.021622 7.394595e-39
-0.667033 0.072804 3.039615 7.394595e-39
-0.668681 0.073227 3.057273 7.394595e-39
-0.669972 0.073614 3.073414 7.302399e-39
-0.670921 0.073965 3.088088 7.302399e-39
-0.669804 0.074091 3.093324 7.302399e-39
-0.669311 0.074286 3.101480 7.486790e-39
-0.656213 0.070974 2.875735 7.486790e-39
-0.655865 0.071164 2.883420 7.302399e-39
-0.655882 0.071394 2.892760 7.302399e-39
-0.655201 0.071550 2.899073 7.394595e-39
-0.655295 0.071792 2.908863 7.394595e-39
-0.656225 0.072127 2.922444 7.394595e-39
-0.657490 0.072501 2.937610 7.394595e-39
-0.658717 0.072874 2.952702 7.394595e-39
-0.659942 0.073249 2.967889 7.394595e-39
-0.661217 0.073631 2.983394 7.394595e-39
-0.662887 0.074061 3.000794 7.394595e-39
-0.664626 0.074501 3.018624 7.394595e-39
-0.666284 0.074935 3.036203 7.394595e-39
-0.667849 0.075361 3.053469 7.394595e-39
-0.669140 0.075759 3.069597 7.394595e-39
-0.670389 0.076155 3.085641 7.394595e-39
-0.670598 0.076435 3.096990 7.394595e-39
-0.671717 0.076821 3.112632 7.578986e-39
-0.666089 0.071432 2.811303 7.394593e-39
-0.664218 0.071451 2.812056 7.394593e-39
-0.662599 0.071498 2.813880 7.394593e-39
-0.660988 0.071545 2.815749 7.394593e-39
-0.659381 0.071594 2.817647 7.394595e-39
-0.657767 0.071641 2.819529 7.394595e-39
-0.656238 0.071699 2.821790 7.302399e-39
-0.654980 0.071786 2.825229 7.394593e-39
-0.653859 0.071889 2.829289 7.394595e-39
-0.652734 0.071993 2.833350 7.394595e-39
-0.651607 0.072096 2.837432 7.394593e-39
-0.651978 0.072367 2.848085 7.394595e-39
-0.652976 0.072709 2.861553 7.394595e-39
-0.654190 0.073078 2.876053 7.302399e-39
-0.654594 0.073358 2.887077 7.302399e-39
-0.654408 0.073573 2.895563 7.394595e-39
-0.654720 0.073846 2.906312 7.394595e-39
-0.655678 0.074194 2.920009 7.394595e-39
-0.656974 0.074583 2.935303 7.394595e-39
-0.658229 0.074970 2.950515 7.394595e-39
-0.659470 0.075357 2.965766 7.394595e-39
-0.660750 0.075752 2.981291 7.394595e-39
-0.662328 0.076183 2.998266 7.486790e-39
-0.663988 0.076627 3.015725 7.394595e-39
-0.665551 0.077062 3.032863 7.394595e-39
-0.667028 0.077490 3.049718 7.394595e-39
-0.668323 0.077900 3.065850 7.302399e-39
-0.669950 0.078352 3.083619 7.302399e-39
-0.671426 0.078789 3.100813 7.394595e-39
-0.673902 0.079346 3.122753 7.578986e-39
-0.677457 0.080035 3.149861 7.486790e-39
-0.668137 0.073481 2.811303 7.394593e-39
-0.666089 0.073481 2.811303 7.394595e-39
-0.664217 0.073500 2.812048 7.486789e-39
-0.662596 0.073548 2.813867 7.394593e-39
-0.660987 0.073597 2.815744 7.302399e-39
-0.659377 0.073646 2.817634 7.302399e-39
-0.657768 0.073696 2.819535 7.302399e-39
-0.656242 0.073755 2.821804 7.302399e-39
-0.654995 0.073846 2.825297 7.302399e-39
-0.653891 0.073954 2.829426 7.394595e-39
-0.652784 0.074063 2.833569 7.394595e-39
-0.651672 0.074171 2.837716 7.302399e-39
-0.651443 0.074381 2.845748 7.210203e-39
-0.651971 0.074679 2.857146 7.302399e-39
-0.652954 0.075031 2.870618 7.302399e-39
-0.653506 0.075336 2.882278 7.302399e-39
-0.653666 0.075597 2.892278 7.302399e-39
-0.654184 0.075902 2.903934 7.394595e-39
-0.655190 0.076265 2.917837 7.394595e-39
-0.656492 0.076665 2.933149 7.394595e-39
-0.657763 0.077065 2.948429 7.394595e-39
-0.659008 0.077464 2.963688 7.394595e-39
-0.660280 0.077868 2.979170 7.486790e-39
-0.661794 0.078304 2.995850 7.486790e-39
-0.663341 0.078747 3.012789 7.394595e-39
-0.664813 0.079184 3.029497 7.302399e-39
-0.666199 0.079613 3.045927 7.302399e-39
-0.667476 0.080032 3.061965 7.302399e-39
-0.669486 0.080543 3.081486 7.302399e-39
-0.672098 0.081129 3.103915 7.486790e-39
-0.675593 0.081826 3.130589 7.486790e-39
-0.680037 0.082643 3.161859 7.486790e-39
-0.670186 0.075529 2.811303 7.302398e-39
-0.668137 0.075529 2.811303 7.394593e-39
-0.666089 0.075529 2.811304 7.394593e-39
-0.664215 0.075549 2.812039 7.394593e-39
-0.662596 0.075598 2.813866 7.394593e-39
-0.660986 0.075648 2.815741 7.302399e-39
-0.659377 0.075699 2.817631 7.394593e-39
-0.657768 0.075750 2.819536 7.394593e-39
-0.656242 0.075811 2.821805 7.394593e-39
-0.654991 0.075904 2.825277 7.394595e-39
-0.653880 0.076014 2.829378 7.394595e-39
-0.652766 0.076125 2.833489 7.302399e-39
-0.651647 0.076236 2.837607 7.302399e-39
-0.651135 0.076418 2.844402 7.302399e-39
-0.651302 0.076682 2.854216 7.302399e-39
-0.652026 0.077013 2.866542 7.302399e-39
-0.652599 0.077328 2.878277 7.302399e-39
-0.652983 0.077623 2.889259 7.302399e-39
-0.653687 0.077958 2.901726 7.302399e-39
-0.654742 0.078337 2.915839 7.302399e-39
-0.656049 0.078749 2.931172 7.302399e-39
-0.657314 0.079159 2.946415 7.302399e-39
-0.658557 0.079568 2.961659 7.302399e-39
-0.659812 0.079982 2.977055 7.302399e-39
-0.661252 0.080421 2.993397 7.302399e-39
-0.662705 0.080864 3.009900 7.302399e-39
-0.664072 0.081300 3.026121 7.394595e-39
-0.665360 0.081729 3.042089 7.394595e-39
-0.666606 0.082156 3.057973 7.394595e-39
-0.669019 0.082730 3.079337 7.578266e-39
-0.672660 0.083460 3.106512 7.578626e-39
-0.676815 0.084259 3.136253 7.578626e-39
-0.681624 0.085145 3.169238 7.578267e-39
-0.685889 0.085969 3.199906 7.670102e-39
-0.670975 0.077669 2.814616 7.394593e-39
-0.668848 0.077660 2.814291 7.394595e-39
-0.666683 0.077646 2.813810 7.486789e-39
-0.664753 0.077660 2.814318 7.302399e-39
-0.663129 0.077710 2.816129 7.302398e-39
-0.661515 0.077762 2.817994 7.302399e-39
-0.659900 0.077813 2.819867 7.394595e-39
-0.658286 0.077866 2.821754 7.486789e-39
-0.656751 0.077927 2.823994 7.486789e-39
-0.655469 0.078020 2.827340 7.486790e-39
-0.654334 0.078130 2.831340 7.394595e-39
-0.653184 0.078239 2.835306 7.302399e-39
-0.652037 0.078350 2.839307 7.394595e-39
-0.651356 0.078517 2.845368 7.394595e-39
-0.651303 0.078761 2.854218 7.302399e-39
-0.651817 0.079076 2.865619 7.302399e-39
-0.652327 0.079392 2.877081 7.210203e-39
-0.652779 0.079703 2.888355 7.302399e-39
-0.653534 0.080054 2.901047 7.302399e-39
-0.654571 0.080441 2.915077 7.302399e-39
-0.655846 0.080860 2.930265 7.302399e-39
-0.657089 0.081278 2.945405 7.302399e-39
-0.658318 0.081697 2.960586 7.210203e-39
-0.659520 0.082115 2.975739 7.210203e-39
-0.660873 0.082555 2.991677 7.210203e-39
-0.662247 0.083000 3.007818 7.302399e-39
-0.663545 0.083439 3.023720 7.302399e-39
-0.664761 0.083870 3.039353 7.486790e-39
-0.665960 0.084302 3.055011 7.486431e-39
-0.668659 0.084928 3.077678 7.578267e-39
-0.673056 0.085774 3.108339 7.578626e-39
-0.677608 0.086645 3.139930 7.578267e-39
-0.682345 0.087547 3.172588 7.486430e-39
-0.686373 0.088363 3.202167 7.394236e-39
-0.674483 0.079892 2.820709 7.394595e-39
-0.672102 0.079853 2.819344 7.486790e-39
-0.669746 0.079817 2.818070 7.394595e-39
-0.667503 0.079794 2.817269 7.486790e-39
-0.665520 0.079803 2.817564 7.302399e-39
-0.663861 0.079850 2.819237 7.302399e-39
-0.662246 0.079903 2.821107 7.394595e-39
-0.660627 0.079956 2.822973 7.486790e-39
-0.659007 0.080009 2.824845 7.486790e-39
-0.657464 0.080072 2.827062 7.486790e-39
-0.656164 0.080164 2.830335 7.394595e-39
-0.655000 0.080275 2.834226 7.394595e-39
-0.653828 0.080384 2.838099 7.394595e-39
-0.652653 0.080494 2.841987 7.394595e-39
-0.651866 0.080653 2.847593 7.394595e-39
-0.651711 0.080892 2.856008 7.394595e-39
-0.652157 0.081206 2.867118 7.302399e-39
-0.652608 0.081523 2.878317 7.118008e-39
-0.652974 0.081832 2.889216 7.118008e-39
-0.653702 0.082188 2.901793 7.394595e-39
-0.654703 0.082581 2.915667 7.302399e-39
-0.655956 0.083009 2.930757 7.302399e-39
-0.657170 0.083434 2.945771 7.302399e-39
-0.658370 0.083860 2.960816 7.302399e-39
-0.659553 0.084287 2.975888 7.302399e-39
-0.660863 0.084733 2.991635 7.302399e-39
-0.662179 0.085183 3.007512 7.302399e-39
-0.663435 0.085628 3.023217 7.302399e-39
-0.664608 0.086065 3.038654 7.394595e-39
-0.665781 0.086505 3.054190 7.486790e-39
-0.668566 0.087158 3.077252 7.486790e-39
-0.673246 0.088063 3.109217 7.486790e-39
-0.677895 0.088971 3.141257 7.486790e-39
-0.682519 0.089881 3.173399 7.394595e-39
-0.686292 0.090685 3.201788 7.394595e-39
-0.688821 0.091330 3.224548 7.302399e-39
-0.677739 0.082092 2.825716 7.394593e-39
-0.675269 0.082042 2.823995 7.394593e-39
-0.672886 0.082003 2.822631 7.394593e-39
-0.670564 0.081970 2.821515 7.302399e-39
-0.668309 0.081946 2.820674 7.394595e-39
-0.666294 0.081951 2.820844 7.394595e-39
-0.664606 0.081996 2.822402 7.394595e-39
-0.662985 0.082050 2.824256 7.394595e-39
-0.661357 0.082103 2.826092 7.394595e-39
-0.659731 0.082157 2.827949 7.394595e-39
-0.658181 0.082221 2.830143 7.394595e-39
-0.656866 0.082315 2.833366 7.394595e-39
-0.655683 0.082425 2.837181 7.394595e-39
-0.654493 0.082536 2.840985 7.394595e-39
-0.653299 0.082647 2.844802 7.394595e-39
-0.652442 0.082801 2.850112 7.394595e-39
-0.652225 0.083038 2.858260 7.394595e-39
-0.652619 0.083354 2.869149 7.302399e-39
-0.653021 0.083673 2.880139 7.210203e-39
-0.653381 0.083990 2.891020 7.210203e-39
-0.654036 0.084346 2.903274 7.486790e-39
-0.654972 0.084740 2.916865 7.394595e-39
-0.656218 0.085178 2.931926 7.394595e-39
-0.657431 0.085614 2.946938 7.394595e-39
-0.658616 0.086050 2.961926 7.394595e-39
-0.659784 0.086485 2.976930 7.394595e-39
-0.661064 0.086939 2.992542 7.394595e-39
-0.662359 0.087398 3.008327 7.394595e-39
-0.663602 0.087852 3.023981 7.394595e-39
-0.664746 0.088297 3.039282 7.394595e-39
-0.665905 0.088747 3.054760 7.486790e-39
-0.668678 0.089415 3.077765 7.486790e-39
-0.673331 0.090340 3.109609 7.486790e-39
-0.677926 0.091264 3.141403 7.486790e-39
-0.682421 0.092180 3.172943 7.578986e-39
-0.686030 0.092982 3.200566 7.486790e-39
-0.688610 0.093650 3.223558 7.394595e-39
-0.682420 0.084221 2.828050 7.302398e-39
-0.680359 0.084221 2.828050 7.394593e-39
-0.678079 0.084193 2.827135 7.394593e-39
-0.675801 0.084166 2.826222 7.394593e-39
-0.673542 0.084141 2.825383 7.302399e-39
-0.671313 0.084120 2.824665 7.302399e-39
-0.669114 0.084102 2.824069 7.394595e-39
-0.667118 0.084110 2.824330 7.486790e-39
-0.665411 0.084154 2.825820 7.486790e-39
-0.663778 0.084208 2.827634 7.394595e-39
-0.662141 0.084262 2.829443 7.394595e-39
-0.660505 0.084316 2.831267 7.394595e-39
-0.658943 0.084381 2.833418 7.394595e-39
-0.657614 0.084475 2.836591 7.394595e-39
-0.656413 0.084587 2.840339 7.302399e-39
-0.655204 0.084698 2.844072 7.394595e-39
-0.653992 0.084809 2.847817 7.394595e-39
-0.653082 0.084961 2.852907 7.486790e-39
-0.652819 0.085198 2.860865 7.394595e-39
-0.653175 0.085517 2.871591 7.394595e-39
-0.653519 0.085837 2.882335 7.394595e-39
-0.653852 0.086158 2.893104 7.394595e-39
-0.654420 0.086512 2.904979 7.394595e-39
-0.655328 0.086913 2.918450 7.302399e-39
-0.656553 0.087359 2.933424 7.210203e-39
-0.657745 0.087803 2.948344 7.210203e-39
-0.658906 0.088246 2.963227 7.210203e-39
-0.660058 0.088691 2.978167 7.302399e-39
-0.661313 0.089153 2.993671 7.302399e-39
-0.662592 0.089621 3.009386 7.394595e-39
-0.663813 0.090084 3.024943 7.394595e-39
-0.664950 0.090539 3.040215 7.486790e-39
-0.666097 0.090998 3.055640 7.486790e-39
-0.668831 0.091678 3.078469 7.394595e-39
-0.673400 0.092615 3.109927 7.394595e-39
-0.677869 0.093544 3.141136 7.394595e-39
-0.682273 0.094471 3.172256 7.486790e-39
-0.685784 0.095280 3.199420 7.394595e-39
-0.688388 0.095968 3.222519 7.486790e-39
-0.682420 0.086281 2.828050 7.486070e-39
-0.680359 0.086281 2.828050 7.486430e-39
-0.678253 0.086275 2.827859 7.486430e-39
-0.676169 0.086272 2.827759 7.394593e-39
-0.674075 0.086268 2.827617 7.394593e-39
-0.671980 0.086263 2.827473 7.302399e-39
-0.669887 0.086259 2.827334 7.394595e-39
-0.667945 0.086275 2.827834 7.486790e-39
-0.666239 0.086320 2.829339 7.486790e-39
-0.664595 0.086375 2.831114 7.394595e-39
-0.662949 0.086429 2.832897 7.394595e-39
-0.661302 0.086483 2.834681 7.486790e-39
-0.659728 0.086548 2.836793 7.486790e-39
-0.658381 0.086643 2.839902 7.394595e-39
-0.657166 0.086755 2.843594 7.394595e-39
-0.655937 0.086867 2.847255 7.394595e-39
-0.654704 0.086979 2.850920 7.394595e-39
-0.653750 0.087128 2.855825 7.486790e-39
-0.653441 0.087365 2.863590 7.394595e-39
-0.653752 0.087687 2.874127 7.486790e-39
-0.654050 0.088009 2.884679 7.486790e-39
-0.654338 0.088331 2.895252 7.394595e-39
-0.654851 0.088687 2.906893 7.394595e-39
-0.655713 0.089091 2.920164 7.302399e-39
-0.656916 0.089545 2.935044 7.210203e-39
-0.658065 0.089995 2.949780 7.118008e-39
-0.659192 0.090444 2.964513 7.210203e-39
-0.660336 0.090899 2.979419 7.210203e-39
-0.661555 0.091367 2.994764 7.302399e-39
-0.662827 0.091846 3.010453 7.394595e-39
-0.664024 0.092317 3.025902 7.302399e-39
-0.665152 0.092782 3.041138 7.394595e-39
-0.666292 0.093252 3.056534 7.394595e-39
-0.669000 0.093945 3.079248 7.394595e-39
-0.673478 0.094892 3.110290 7.302399e-39
-0.677839 0.095829 3.140998 7.302399e-39
-0.682097 0.096757 3.171435 7.302399e-39
-0.685524 0.097574 3.198203 7.302399e-39
-0.688166 0.098284 3.221478 7.394595e-39
-0.684480 0.088342 2.828050 7.577907e-39
-0.682420 0.088342 2.828050 7.577907e-39
-0.680359 0.088342 2.828050 7.670102e-39
-0.678364 0.088350 2.828324 7.486430e-39
-0.676444 0.088368 2.828908 7.394595e-39
-0.674512 0.088385 2.829451 7.394595e-39
-0.672573 0.088401 2.829967 7.394595e-39
-0.670626 0.088417 2.830453 7.394595e-39
-0.668778 0.088445 2.831358 7.394595e-39
-0.667088 0.088494 2.832941 7.302399e-39
-0.665432 0.088549 2.834679 7.302399e-39
-0.663773 0.088603 2.836416 7.394595e-39
-0.662116 0.088658 2.838170 7.486790e-39
-0.660529 0.088722 2.840239 7.394595e-39
-0.659168 0.088818 2.843295 7.394595e-39
-0.657932 0.088931 2.846911 7.394595e-39
-0.656686 0.089043 2.850505 7.394595e-39
-0.655432 0.089155 2.854087 7.394595e-39
-0.654441 0.089303 2.858842 7.394595e-39
-0.654095 0.089541 2.866453 7.394595e-39
-0.654352 0.089863 2.876765 7.394595e-39
-0.654605 0.090187 2.887128 7.302399e-39
-0.654850 0.090511 2.897516 7.302399e-39
-0.655297 0.090866 2.908871 7.394595e-39
-0.656097 0.091272 2.921876 7.302399e-39
-0.657270 0.091733 2.936629 7.302399e-39
-0.658398 0.092191 2.951272 7.210203e-39
-0.659501 0.092648 2.965904 7.302399e-39
-0.660624 0.093111 2.980723 7.302399e-39
-0.661810 0.093585 2.995922 7.302399e-39
-0.663059 0.094072 3.011509 7.394595e-39
-0.664242 0.094553 3.026897 7.302399e-39
-0.665358 0.095027 3.042081 7.302399e-39
-0.666474 0.095505 3.057369 7.394595e-39
-0.669149 0.096210 3.079935 7.394595e-39
-0.673530 0.097166 3.110529 7.302399e-39
-0.677807 0.098113 3.140852 7.210203e-39
-0.681959 0.099048 3.170795 7.302399e-39
-0.685275 0.099868 3.197042 7.210203e-39
-0.687941 0.100598 3.220425 7.394595e-39
-0.686543 0.090402 2.828060 7.670102e-39
-0.684482 0.090402 2.828056 7.670102e-39
-0.682420 0.090402 2.828053 7.670102e-39
-0.680359 0.090402 2.828051 7.670102e-39
-0.678448 0.090422 2.828671 7.578267e-39
-0.676679 0.090461 2.829892 7.486430e-39
-0.674903 0.090499 2.831094 7.486430e-39
-0.673122 0.090537 2.832275 7.486071e-39
-0.671334 0.090574 2.833441 7.486071e-39
-0.669590 0.090618 2.834798 7.486430e-39
-0.667918 0.090671 2.836466 7.486071e-39
-0.666252 0.090726 2.838172 7.486071e-39
-0.664585 0.090780 2.839887 7.486430e-39
-0.662914 0.090835 2.841592 7.578267e-39
-0.661316 0.090900 2.843623 7.486430e-39
-0.659939 0.090996 2.846621 7.486430e-39
-0.658683 0.091109 2.850160 7.486430e-39
-0.657421 0.091222 2.853698 7.486430e-39
-0.656149 0.091334 2.857210 7.486430e-39
-0.655117 0.091481 2.861798 7.486430e-39
-0.654730 0.091719 2.869237 7.486071e-39
-0.654946 0.092043 2.879378 7.394234e-39
-0.655148 0.092367 2.889522 7.393874e-39
-0.655341 0.092692 2.899692 7.393876e-39
-0.655733 0.093047 2.910809 7.394236e-39
-0.656494 0.093458 2.923640 7.302399e-39
-0.657617 0.093922 2.938175 7.302399e-39
-0.658714 0.094386 2.952689 7.302399e-39
-0.659793 0.094851 2.967219 7.302399e-39
-0.660876 0.095319 2.981858 7.394595e-39
-0.662036 0.095801 2.996944 7.394595e-39
-0.663268 0.096297 3.012457 7.394595e-39
-0.664434 0.096786 3.027770 7.302399e-39
-0.665532 0.097269 3.042876 7.302399e-39
-0.666632 0.097756 3.058092 7.394595e-39
-0.669270 0.098472 3.080493 7.394595e-39
-0.673550 0.099435 3.110623 7.394595e-39
-0.677754 0.100393 3.140604 7.302399e-39
-0.681809 0.101336 3.170096 7.302399e-39
-0.685032 0.102161 3.195910 7.302399e-39
-0.687705 0.102910 3.219323 7.394595e-39
-0.686544 0.092463 2.828065 7.670102e-39
-0.684483 0.092463 2.828061 7.670102e-39
-0.682421 0.092463 2.828056 7.578626e-39
-0.680360 0.092463 2.828052 7.578626e-39
-0.678503 0.092490 2.828902 7.578267e-39
-0.676860 0.092547 2.830650 7.486431e-39
-0.675234 0.092607 2.832480 7.486430e-39
-0.673601 0.092667 2.834291 7.486071e-39
-0.671961 0.092725 2.836087 7.486430e-39
-0.670315 0.092783 2.837867 7.486431e-39
-0.668666 0.092841 2.839643 7.486431e-39
-0.666996 0.092897 2.841341 7.578267e-39
-0.665322 0.092952 2.843038 7.578267e-39
-0.663647 0.093008 2.844733 7.486431e-39
-0.662045 0.093074 2.846756 7.486430e-39
-0.660653 0.093170 2.849702 7.394236e-39
-0.659381 0.093284 2.853181 7.486430e-39
-0.658100 0.093397 2.856642 7.486430e-39
-0.656811 0.093510 2.860091 7.486430e-39
-0.655750 0.093656 2.864562 7.486430e-39
-0.655324 0.093894 2.871842 7.486071e-39
-0.655497 0.094220 2.881798 7.394236e-39
-0.655659 0.094546 2.891777 7.394234e-39
-0.655815 0.094873 2.901787 7.394234e-39
-0.656154 0.095229 2.912676 7.394236e-39
-0.656860 0.095641 2.925270 7.302399e-39
-0.657951 0.096112 2.939668 7.394595e-39
-0.659019 0.096582 2.954055 7.394595e-39
-0.660060 0.097052 2.968415 7.394595e-39
-0.661113 0.097526 2.982929 7.394595e-39
-0.662246 0.098015 2.997893 7.302399e-39
-0.663448 0.098518 3.013274 7.302399e-39
-0.664587 0.099015 3.028466 7.394595e-39
-0.665656 0.099505 3.043443 7.302399e-39
-0.666727 0.099998 3.058529 7.302399e-39
-0.669322 0.100724 3.080730 7.394595e-39
-0.673542 0.101700 3.110585 7.394595e-39
-0.677644 0.102665 3.140095 7.394595e-39
-0.681645 0.103621 3.169336 7.394595e-39
-0.684801 0.104454 3.194829 7.394595e-39
-0.687451 0.105216 3.218132 7.394595e-39
-0.690674 0.094525 2.828099 7.394595e-39
-0.688611 0.094524 2.828090 7.486430e-39
-0.686547 0.094524 2.828075 7.578267e-39
-0.684484 0.094523 2.828066 7.578626e-39
-0.682422 0.094523 2.828059 7.486790e-39
-0.680360 0.094523 2.828054 7.394595e-39
-0.678550 0.094558 2.829099 7.394595e-39
-0.677035 0.094634 2.831381 7.394595e-39
-0.675563 0.094717 2.833861 7.394595e-39
-0.674083 0.094799 2.836320 7.394595e-39
-0.672592 0.094881 2.838752 7.394595e-39
-0.671043 0.094954 2.840947 7.394595e-39
-0.669422 0.095018 2.842855 7.394595e-39
-0.667746 0.095074 2.844537 7.394595e-39
-0.666066 0.095130 2.846216 7.394595e-39
-0.664384 0.095186 2.847895 7.394595e-39
-0.662778 0.095254 2.849912 7.302399e-39
-0.661375 0.095351 2.852817 7.302399e-39
-0.660085 0.095465 2.856226 7.394595e-39
-0.658784 0.095578 2.859613 7.394595e-39
-0.657475 0.095691 2.862984 7.302399e-39
-0.656383 0.095836 2.867329 7.302399e-39
-0.655928 0.096075 2.874487 7.394595e-39
-0.656053 0.096401 2.884247 7.302399e-39
-0.656177 0.096729 2.894060 7.302399e-39
-0.656281 0.097056 2.903848 7.302399e-39
-0.656573 0.097414 2.914537 7.302399e-39
-0.657227 0.097827 2.926906 7.394595e-39
-0.658275 0.098302 2.941119 7.394595e-39
-0.659306 0.098778 2.955345 7.394595e-39
-0.660312 0.099252 2.969553 7.302399e-39
-0.661337 0.099733 2.983936 7.302399e-39
-0.662434 0.100228 2.998745 7.302399e-39
-0.663598 0.100736 3.013955 7.302399e-39
-0.664720 0.101242 3.029073 7.302399e-39
-0.665764 0.101739 3.043939 7.302399e-39
-0.666800 0.102238 3.058866 7.302399e-39
-0.669351 0.102973 3.080864 7.302399e-39
-0.673504 0.103960 3.110409 7.394595e-39
-0.677545 0.104937 3.139634 7.394595e-39
-0.681468 0.105902 3.168511 7.394595e-39
-0.684569 0.106746 3.193749 7.394595e-39
-0.687187 0.107519 3.216897 7.394595e-39
-0.692734 0.096585 2.828099 7.394595e-39
-0.690674 0.096585 2.828099 7.302399e-39
-0.688611 0.096585 2.828090 7.394595e-39
-0.686548 0.096584 2.828079 7.486790e-39
-0.684485 0.096584 2.828070 7.486790e-39
-0.682423 0.096584 2.828062 7.486790e-39
-0.680360 0.096584 2.828055 7.394595e-39
-0.678592 0.096625 2.829272 7.394595e-39
-0.677205 0.096721 2.832091 7.394595e-39
-0.675889 0.096829 2.835230 7.302399e-39
-0.674564 0.096935 2.838344 7.302399e-39
-0.673228 0.097040 2.841433 7.302399e-39
-0.671788 0.097132 2.844102 7.302399e-39
-0.670201 0.097202 2.846164 7.302039e-39
-0.668518 0.097259 2.847826 7.393874e-39
-0.666831 0.097315 2.849485 7.393874e-39
-0.665142 0.097372 2.851144 7.394234e-39
-0.663521 0.097439 2.853106 7.393874e-39
-0.662099 0.097536 2.855938 7.393874e-39
-0.660792 0.097650 2.859288 7.486070e-39
-0.659473 0.097763 2.862604 7.486070e-39
-0.658150 0.097877 2.865927 7.393874e-39
-0.657032 0.098022 2.870161 7.393874e-39
-0.656535 0.098260 2.877148 7.393874e-39
-0.656621 0.098588 2.886741 7.393874e-39
-0.656693 0.098915 2.896336 7.393874e-39
-0.656754 0.099244 2.905943 7.393874e-39
-0.656988 0.099600 2.916380 7.393874e-39
-0.657597 0.100016 2.928555 7.486070e-39
-0.658611 0.100496 2.942617 7.486070e-39
-0.659597 0.100975 2.956646 7.393874e-39
-0.660565 0.101455 2.970690 7.394234e-39
-0.661562 0.101942 2.984952 7.486070e-39
-0.662621 0.102442 2.999591 7.393874e-39
-0.663758 0.102957 3.014680 7.393876e-39
-0.664851 0.103469 3.029672 7.394234e-39
-0.665865 0.103972 3.044400 7.302399e-39
-0.666876 0.104478 3.059214 7.302399e-39
-0.669378 0.105222 3.080986 7.302399e-39
-0.673451 0.106218 3.110164 7.394595e-39
-0.677437 0.107208 3.139136 7.394595e-39
-0.681285 0.108182 3.167660 7.394595e-39
-0.684331 0.109035 3.192637 7.394595e-39
-0.686923 0.109821 3.215663 7.302399e-39
-0.684581 0.109821 3.215664 7.394595e-39
-0.694795 0.098646 2.828099 7.578267e-39
-0.692734 0.098646 2.828099 7.486071e-39
-0.690674 0.098646 2.828099 7.394234e-39
-0.688611 0.098645 2.828092 7.578266e-39
-0.686548 0.098645 2.828083 7.578267e-39
-0.684486 0.098645 2.828073 7.578267e-39
-0.682423 0.098644 2.828064 7.486430e-39
-0.680361 0.098644 2.828057 7.394595e-39
-0.678631 0.098692 2.829434 7.486790e-39
-0.677372 0.098809 2.832789 7.394595e-39
-0.676216 0.098942 2.836601 7.302399e-39
-0.675047 0.099074 2.840376 7.302399e-39
-0.673865 0.099205 2.844125 7.302399e-39
-0.672526 0.099313 2.847225 7.302398e-39
-0.670978 0.099391 2.849463 7.302039e-39
-0.669283 0.099447 2.851087 7.302039e-39
-0.667591 0.099505 2.852733 7.302039e-39
-0.665893 0.099562 2.854363 7.393874e-39
-0.664264 0.099629 2.856299 7.394234e-39
-0.662834 0.099727 2.859107 7.394234e-39
-0.661505 0.099841 2.862372 7.486070e-39
-0.660168 0.099954 2.865622 7.577905e-39
-0.658827 0.100068 2.868873 7.577905e-39
-0.657677 0.100211 2.872981 7.485710e-39
-0.657150 0.100450 2.879841 7.393516e-39
-0.657191 0.100778 2.889247 7.485711e-39
-0.657215 0.101106 2.898639 7.485711e-39
-0.657233 0.101435 2.908061 7.485711e-39
-0.657418 0.101791 2.918286 7.485711e-39
-0.657972 0.102208 2.930226 7.485711e-39
-0.658945 0.102692 2.944112 7.485710e-39
-0.659890 0.103175 2.957959 7.485710e-39
-0.660821 0.103659 2.971840 7.485711e-39
-0.661786 0.104152 2.985963 7.577905e-39
-0.662806 0.104657 3.000430 7.485711e-39
-0.663918 0.105179 3.015410 7.394234e-39
-0.664970 0.105695 3.030214 7.394234e-39
-0.665969 0.106207 3.044877 7.394595e-39
-0.666951 0.106719 3.059555 7.394595e-39
-0.669403 0.107470 3.081104 7.394595e-39
-0.673415 0.108478 3.110000 7.394595e-39
-0.677329 0.109477 3.138633 7.394595e-39
-0.681121 0.110463 3.166898 7.302399e-39
-0.684096 0.111323 3.191542 7.302399e-39
-0.686659 0.112121 3.214427 7.302399e-39
-0.684317 0.112121 3.214427 7.210203e-39
-0.694861 0.100716 2.828370 7.670102e-39
-0.692827 0.100720 2.828480 7.670102e-39
-0.690790 0.100723 2.828578 7.577907e-39
-0.688740 0.100725 2.828619 7.670102e-39
-0.686669 0.100723 2.828579 7.670102e-39
-0.684601 0.100722 2.828548 7.670102e-39
-0.682534 0.100721 2.828523 7.578266e-39
-0.680468 0.100720 2.828503 7.578266e-39
-0.678766 0.100774 2.829999 7.486431e-39
-0.677613 0.100909 2.833799 7.394595e-39
-0.676592 0.101065 2.838177 7.302399e-39
-0.675557 0.101220 2.842522 7.302399e-39
-0.674510 0.101374 2.846844 7.302399e-39
-0.673266 0.101499 2.850357 7.302399e-39
-0.671759 0.101585 2.852781 7.302399e-39
-0.670064 0.101643 2.854411 7.394595e-39
-0.668362 0.101700 2.856025 7.302399e-39
-0.666658 0.101758 2.857640 7.302399e-39
-0.665022 0.101826 2.859557 7.394595e-39
-0.663573 0.101924 2.862297 7.394595e-39
-0.662227 0.102038 2.865495 7.394234e-39
-0.660874 0.102151 2.868685 7.394234e-39
-0.659517 0.102265 2.871877 7.486430e-39
-0.658331 0.102406 2.875836 7.394234e-39
-0.657782 0.102647 2.882612 7.302039e-39
-0.657773 0.102975 2.891805 7.302040e-39
-0.657751 0.103302 2.901003 7.394234e-39
-0.657726 0.103631 2.910245 7.394234e-39
-0.657858 0.103987 2.920241 7.394234e-39
-0.658365 0.104405 2.931974 7.394234e-39
-0.659293 0.104892 2.945664 7.394234e-39
-0.660197 0.105379 2.959339 7.394234e-39
-0.661100 0.105869 2.973096 7.394234e-39
-0.662020 0.106365 2.987017 7.394236e-39
-0.662997 0.106873 3.001294 7.394236e-39
-0.664092 0.107404 3.016200 7.302399e-39
-0.665126 0.107928 3.030925 7.302399e-39
-0.666100 0.108447 3.045474 7.394595e-39
-0.667045 0.108963 3.059990 7.394595e-39
-0.669453 0.109724 3.081335 7.394595e-39
-0.673399 0.110742 3.109925 7.394595e-39
-0.677255 0.111752 3.138293 7.302399e-39
-0.680971 0.112746 3.166202 7.210203e-39
-0.683895 0.113615 3.190607 7.302399e-39
-0.686431 0.114425 3.213358 7.302399e-39
-0.684090 0.114425 3.213357 7.302399e-39
-0.696851 0.102766 2.828082 7.578626e-39
-0.694976 0.102793 2.828838 7.578626e-39
-0.693091 0.102819 2.829555 7.578626e-39
-0.691147 0.102837 2.830036 7.486431e-39
-0.689145 0.102846 2.830283 7.486431e-39
-0.687066 0.102843 2.830215 7.486431e-39
-0.684994 0.102842 2.830174 7.486431e-39
-0.682925 0.102841 2.830144 7.486430e-39
-0.680860 0.102840 2.830131 7.486430e-39
-0.679170 0.102897 2.831681 7.486431e-39
-0.678059 0.103041 2.835664 7.394595e-39
-0.677111 0.103212 2.840355 7.394595e-39
-0.676150 0.103381 2.845018 7.394595e-39
-0.675185 0.103551 2.849695 7.394595e-39
-0.674005 0.103689 2.853487 7.394595e-39
-0.672528 0.103782 2.856043 7.394595e-39
-0.670837 0.103842 2.857704 7.394595e-39
-0.669142 0.103903 2.859360 7.394595e-39
-0.667445 0.103963 2.861017 7.394595e-39
-0.665811 0.104033 2.862954 7.302399e-39
-0.664353 0.104131 2.865659 7.302399e-39
-0.662989 0.104245 2.868791 7.302399e-39
-0.661619 0.104359 2.871917 7.302399e-39
-0.660239 0.104472 2.875021 7.394595e-39
-0.659032 0.104612 2.878899 7.302399e-39
-0.658446 0.104853 2.885522 7.210203e-39
-0.658391 0.105180 2.894524 7.210203e-39
-0.658328 0.105508 2.903548 7.302399e-39
-0.658256 0.105837 2.912586 7.302399e-39
-0.658345 0.106193 2.922401 7.302399e-39
-0.658799 0.106611 2.933906 7.394595e-39
-0.659682 0.107102 2.947402 7.394595e-39
-0.660548 0.107593 2.960910 7.394595e-39
-0.661396 0.108084 2.974425 7.394595e-39
-0.662284 0.108585 2.988210 7.394595e-39
-0.663232 0.109099 3.002356 7.394595e-39
-0.664304 0.109637 3.017160 7.394595e-39
-0.665320 0.110169 3.031808 7.394595e-39
-0.666272 0.110694 3.046263 7.486790e-39
-0.667200 0.111219 3.060700 7.486790e-39
-0.669568 0.111988 3.081861 7.486790e-39
-0.673467 0.113019 3.110237 7.394595e-39
-0.677267 0.114040 3.138346 7.394595e-39
-0.680939 0.115047 3.166052 7.210203e-39
-0.683809 0.115925 3.190201 7.210203e-39
-0.686315 0.116746 3.212814 7.302399e-39
-0.683974 0.116746 3.212813 7.302399e-39
-0.698051 0.104697 2.824601 7.486790e-39
-0.696703 0.104804 2.827482 7.486790e-39
-0.695102 0.104873 2.829350 7.394595e-39
-0.693391 0.104926 2.830780 7.394595e-39
-0.691590 0.104966 2.831851 7.394595e-39
-0.689663 0.104987 2.832410 7.394595e-39
-0.687605 0.104988 2.832436 7.486790e-39
-0.685553 0.104990 2.832483 7.486790e-39
-0.683505 0.104992 2.832546 7.394595e-39
-0.681461 0.104995 2.832630 7.394595e-39
-0.679775 0.105053 2.834203 7.394595e-39
-0.678667 0.105202 2.838209 7.394595e-39
-0.677747 0.105380 2.843022 7.394595e-39
-0.676824 0.105559 2.847855 7.394595e-39
-0.675894 0.105738 2.852685 7.394595e-39
-0.674741 0.105884 2.856606 7.486790e-39
-0.673290 0.105983 2.859280 7.394595e-39
-0.671618 0.106048 2.861034 7.394595e-39
-0.669945 0.106113 2.862791 7.394595e-39
-0.668268 0.106178 2.864544 7.394595e-39
-0.666648 0.106252 2.866550 7.394595e-39
-0.665180 0.106352 2.869229 7.394595e-39
-0.663798 0.106465 2.872293 7.486430e-39
-0.662407 0.106578 2.875340 7.486071e-39
-0.661010 0.106691 2.878379 7.393876e-39
-0.659784 0.106832 2.882185 7.393874e-39
-0.659150 0.107070 2.888607 7.393876e-39
-0.659066 0.107399 2.897492 7.486071e-39
-0.658954 0.107726 2.906308 7.486071e-39
-0.658837 0.108054 2.915161 7.486071e-39
-0.658874 0.108410 2.924751 7.486071e-39
-0.659284 0.108829 2.936068 7.486070e-39
-0.660119 0.109322 2.949357 7.486070e-39
-0.660934 0.109814 2.962641 7.486071e-39
-0.661731 0.110307 2.975931 7.394236e-39
-0.662575 0.110810 2.989523 7.302399e-39
-0.663499 0.111331 3.003566 7.302399e-39
-0.664566 0.111879 3.018350 7.394595e-39
-0.665561 0.112419 3.032908 7.394595e-39
-0.666503 0.112953 3.047315 7.486790e-39
-0.667417 0.113486 3.061693 7.394595e-39
-0.669763 0.114266 3.082760 7.394595e-39
-0.673618 0.115311 3.110935 7.394595e-39
-0.677357 0.116342 3.138766 7.486790e-39
-0.681021 0.117368 3.166432 7.302399e-39
-0.683849 0.118256 3.190391 7.302399e-39
-0.686320 0.119088 3.212839 7.302399e-39
-0.683979 0.119088 3.212838 7.302399e-39
-0.698777 0.106552 2.819227 7.486790e-39
-0.697978 0.106744 2.824307 7.486790e-39
-0.696627 0.106853 2.827175 7.486790e-39
-0.695207 0.106951 2.829778 7.394595e-39
-0.693669 0.107032 2.831916 7.394595e-39
-0.692033 0.107098 2.833665 7.394595e-39
-0.690200 0.107134 2.834617 7.394595e-39
-0.688173 0.107140 2.834773 7.394595e-39
-0.686149 0.107146 2.834945 7.394595e-39
-0.684127 0.107153 2.835126 7.394595e-39
-0.682108 0.107160 2.835320 7.302399e-39
-0.680424 0.107221 2.836913 7.394595e-39
-0.679318 0.107373 2.840931 7.394595e-39
-0.678419 0.107558 2.845840 7.394595e-39
-0.677512 0.107744 2.850750 7.486790e-39
-0.676599 0.107929 2.855661 7.486790e-39
-0.675467 0.108081 2.859678 7.486790e-39
-0.674042 0.108187 2.862475 7.394595e-39
-0.672398 0.108258 2.864355 7.302399e-39
-0.670748 0.108328 2.866222 7.302399e-39
-0.669095 0.108399 2.868089 7.302399e-39
-0.667494 0.108478 2.870187 7.486430e-39
-0.666019 0.108579 2.872846 7.578267e-39
-0.664616 0.108692 2.875832 7.578267e-39
-0.663206 0.108804 2.878808 7.577907e-39
-0.661788 0.108916 2.881767 7.485711e-39
-0.660540 0.109056 2.885487 7.393516e-39
-0.659871 0.109294 2.891765 7.485711e-39
-0.659743 0.109623 2.900465 7.577907e-39
-0.659588 0.109949 2.909104 7.577907e-39
-0.659432 0.110277 2.917793 7.485711e-39
-0.659422 0.110632 2.927185 7.485711e-39
-0.659781 0.111052 2.938281 7.485711e-39
-0.660562 0.111545 2.951333 7.485711e-39
-0.661338 0.112041 2.964452 7.577907e-39
-0.662084 0.112535 2.977519 7.486071e-39
-0.662886 0.113042 2.990925 7.210203e-39
-0.663774 0.113566 3.004810 7.302399e-39
-0.664836 0.114124 3.019579 7.302399e-39
-0.665827 0.114674 3.034121 7.302399e-39
-0.666757 0.115217 3.048477 7.394595e-39
-0.667663 0.115759 3.062823 7.394595e-39
-0.669982 0.116551 3.083770 7.394595e-39
-0.673803 0.117610 3.111790 7.486790e-39
-0.677508 0.118655 3.139463 7.486790e-39
-0.681107 0.119690 3.166832 7.302399e-39
-0.683938 0.120596 3.190804 7.302399e-39
-0.686377 0.121439 3.213104 7.302399e-39
-0.684036 0.121439 3.213104 7.302399e-39
-0.700831 0.108606 2.819227 7.486789e-39
-0.698777 0.108606 2.819227 7.486790e-39
-0.697882 0.108787 2.823918 7.486790e-39
-0.696592 0.108907 2.827033 7.486790e-39
-0.695299 0.109027 2.830152 7.486790e-39
-0.693921 0.109135 2.832945 7.486790e-39
-0.692464 0.109230 2.835429 7.486790e-39
-0.690744 0.109285 2.836850 7.486790e-39
-0.688745 0.109296 2.837129 7.394595e-39
-0.686746 0.109307 2.837412 7.394595e-39
-0.684750 0.109318 2.837705 7.302399e-39
-0.682756 0.109330 2.838014 7.394595e-39
-0.681076 0.109392 2.839629 7.394595e-39
-0.679970 0.109547 2.843658 7.394595e-39
-0.679089 0.109740 2.848651 7.394595e-39
-0.678201 0.109932 2.853649 7.486790e-39
-0.677305 0.110125 2.858642 7.394595e-39
-0.676198 0.110284 2.862774 7.394595e-39
-0.674794 0.110395 2.865668 7.302399e-39
-0.673169 0.110471 2.867638 7.302399e-39
-0.671543 0.110548 2.869619 7.302399e-39
-0.669922 0.110625 2.871633 7.302399e-39
-0.668338 0.110709 2.873818 7.394595e-39
-0.666857 0.110811 2.876462 7.486430e-39
-0.665435 0.110923 2.879377 7.486430e-39
-0.664004 0.111035 2.882272 7.486430e-39
-0.662561 0.111145 2.885132 7.394234e-39
-0.661297 0.111286 2.888793 7.209845e-39
-0.660587 0.111522 2.894903 7.301680e-39
-0.660429 0.111852 2.903481 7.577907e-39
-0.660225 0.112177 2.911912 7.577907e-39
-0.660020 0.112504 2.920394 7.577907e-39
-0.659966 0.112858 2.929599 7.485711e-39
-0.660278 0.113278 2.940492 7.485711e-39
-0.661012 0.113773 2.953347 7.485711e-39
-0.661740 0.114270 2.966255 7.577907e-39
-0.662439 0.114766 2.979115 7.577907e-39
-0.663193 0.115274 2.992312 7.486071e-39
-0.664075 0.115808 3.006173 7.578266e-39
-0.665112 0.116373 3.020829 7.578267e-39
-0.666093 0.116931 3.035332 7.486071e-39
-0.667005 0.117482 3.049613 7.394595e-39
-0.667910 0.118034 3.063955 7.394595e-39
-0.670197 0.118835 3.084758 7.394595e-39
-0.673984 0.119909 3.112625 7.486790e-39
-0.677651 0.120968 3.140129 7.394595e-39
-0.681250 0.122023 3.167496 7.302399e-39
-0.684025 0.122936 3.191211 7.302399e-39
-0.686433 0.123790 3.213370 7.302399e-39
-0.684092 0.123790 3.213369 7.302399e-39
-0.702885 0.110660 2.819227 7.302398e-39
-0.700831 0.110660 2.819227 7.394595e-39
-0.698777 0.110660 2.819227 7.486790e-39
-0.697815 0.110834 2.823647 7.486790e-39
-0.696570 0.110963 2.826941 7.486790e-39
-0.695378 0.111102 2.830476 7.486790e-39
-0.694151 0.111236 2.833883 7.486790e-39
-0.692883 0.111364 2.837146 7.486790e-39
-0.691294 0.111441 2.839108 7.486790e-39
-0.689319 0.111456 2.839496 7.394595e-39
-0.687347 0.111472 2.839897 7.302399e-39
-0.685378 0.111488 2.840309 7.302399e-39
-0.683407 0.111504 2.840721 7.394595e-39
-0.681729 0.111568 2.842352 7.394595e-39
-0.680631 0.111728 2.846421 7.394595e-39
-0.679766 0.111927 2.851491 7.394595e-39
-0.678895 0.112126 2.856568 7.394595e-39
-0.678017 0.112325 2.861649 7.394595e-39
-0.676925 0.112490 2.865850 7.394595e-39
-0.675547 0.112609 2.868864 7.394595e-39
-0.673953 0.112692 2.870979 7.394595e-39
-0.672355 0.112774 2.873089 7.486790e-39
-0.670749 0.112857 2.875179 7.394595e-39
-0.669181 0.112945 2.877444 7.394595e-39
-0.667692 0.113048 2.880061 7.394595e-39
-0.666250 0.113160 2.882904 7.394595e-39
-0.664800 0.113271 2.885726 7.394595e-39
-0.663345 0.113381 2.888545 7.302399e-39
-0.662058 0.113521 2.892118 7.118008e-39
-0.661298 0.113753 2.898022 7.118008e-39
-0.661099 0.114083 2.906430 7.394234e-39
-0.660862 0.114409 2.914724 7.394236e-39
-0.660614 0.114734 2.923021 7.394236e-39
-0.660511 0.115087 2.932016 7.394595e-39
-0.660779 0.115508 2.942724 7.394236e-39
-0.661469 0.116005 2.955385 7.394234e-39
-0.662141 0.116502 2.968051 7.394236e-39
-0.662795 0.116999 2.980716 7.394236e-39
-0.663506 0.117510 2.993724 7.394595e-39
-0.664351 0.118047 3.007423 7.486430e-39
-0.665382 0.118622 3.022058 7.486430e-39
-0.666359 0.119190 3.036541 7.394595e-39
-0.667265 0.119750 3.050799 7.394595e-39
-0.668152 0.120310 3.065068 7.394595e-39
-0.670408 0.121121 3.085729 7.394595e-39
-0.674170 0.122211 3.113486 7.394595e-39
-0.677813 0.123286 3.140877 7.302399e-39
-0.681351 0.124349 3.167969 7.210203e-39
-0.684111 0.125277 3.191612 7.302399e-39
-0.686490 0.126142 3.213635 7.210203e-39
-0.684149 0.126142 3.213635 7.302399e-39
-0.702916 0.112719 2.819350 7.394593e-39
-0.700862 0.112719 2.819350 7.486789e-39
-0.698807 0.112719 2.819349 7.394595e-39
-0.697823 0.112892 2.823678 7.394595e-39
-0.696605 0.113028 2.827084 7.394595e-39
-0.695476 0.113180 2.830872 7.394595e-39
-0.694366 0.113335 2.834763 7.394595e-39
-0.693251 0.113491 2.838651 7.486790e-39
-0.691779 0.113589 2.841100 7.486790e-39
-0.689839 0.113610 2.841636 7.394595e-39
-0.687897 0.113632 2.842169 7.302399e-39
-0.685956 0.113653 2.842704 7.302399e-39
-0.684017 0.113675 2.843255 7.302399e-39
-0.682352 0.113743 2.844950 7.302399e-39
-0.681256 0.113906 2.849034 7.302399e-39
-0.680404 0.114111 2.854170 7.210203e-39
-0.679549 0.114317 2.859319 7.210203e-39
-0.678684 0.114523 2.864464 7.302399e-39
-0.677609 0.114694 2.868747 7.302399e-39
-0.676256 0.114819 2.871878 7.302399e-39
-0.674685 0.114908 2.874099 7.394595e-39
-0.673109 0.114997 2.876311 7.394595e-39
-0.671534 0.115086 2.878544 7.394595e-39
-0.669983 0.115180 2.880893 7.394595e-39
-0.668488 0.115284 2.883497 7.302399e-39
-0.667030 0.115395 2.886280 7.302399e-39
-0.665565 0.115506 2.889049 7.394595e-39
-0.664093 0.115616 2.891803 7.302399e-39
-0.662774 0.115754 2.895247 7.210203e-39
-0.662022 0.115991 2.901194 7.210203e-39
-0.661774 0.116319 2.909396 7.302399e-39
-0.661492 0.116643 2.917504 7.394595e-39
-0.661209 0.116969 2.925654 7.394595e-39
-0.661066 0.117322 2.934483 7.302399e-39
-0.661294 0.117743 2.945018 7.302399e-39
-0.661942 0.118243 2.957502 7.394595e-39
-0.662573 0.118742 2.969986 7.394595e-39
-0.663187 0.119241 2.982481 7.394595e-39
-0.663864 0.119755 2.995341 7.394595e-39
-0.664695 0.120301 3.008980 7.302399e-39
-0.665737 0.120888 3.023671 7.210203e-39
-0.666714 0.121467 3.038159 7.302399e-39
-0.667632 0.122040 3.052477 7.394595e-39
-0.668521 0.122611 3.066759 7.302399e-39
-0.670778 0.123437 3.087430 7.302399e-39
-0.674517 0.124543 3.115088 7.302399e-39
-0.678165 0.125639 3.142510 7.302399e-39
-0.681688 0.126720 3.169533 7.210203e-39
-0.684452 0.127666 3.193203 7.302399e-39
-0.686826 0.128546 3.215206 7.302399e-39
-0.684483 0.128546 3.215204 7.302399e-39
-0.703002 0.114787 2.819697 7.394593e-39
-0.700948 0.114788 2.819699 7.486790e-39
-0.698893 0.114787 2.819697 7.394595e-39
-0.697930 0.114967 2.824111 7.394595e-39
-0.696727 0.115108 2.827580 7.394595e-39
-0.695632 0.115268 2.831509 7.394595e-39
-0.694579 0.115436 2.835631 7.394595e-39
-0.693543 0.115608 2.839848 7.486790e-39
-0.692138 0.115719 2.842576 7.394595e-39
-0.690242 0.115748 2.843296 7.302399e-39
-0.688343 0.115777 2.844009 7.302399e-39
-0.686443 0.115806 2.844722 7.302399e-39
-0.684548 0.115836 2.845460 7.302399e-39
-0.682914 0.115911 2.847291 7.302399e-39
-0.681827 0.116079 2.851423 7.210203e-39
-0.680991 0.116291 2.856632 7.210203e-39
-0.680143 0.116502 2.861818 7.210203e-39
-0.679291 0.116714 2.867024 7.210203e-39
-0.678231 0.116891 2.871381 7.302399e-39
-0.676894 0.117022 2.874586 7.302399e-39
-0.675344 0.117116 2.876904 7.302399e-39
-0.673791 0.117211 2.879226 7.394595e-39
-0.672233 0.117305 2.881540 7.302399e-39
-0.670702 0.117405 2.883984 7.210203e-39
-0.669206 0.117511 2.886594 7.210203e-39
-0.667736 0.117622 2.889334 7.302399e-39
-0.666261 0.117734 2.892067 7.394595e-39
-0.664777 0.117844 2.894782 7.394595e-39
-0.663453 0.117984 2.898210 7.302399e-39
-0.662678 0.118222 2.904068 7.302399e-39
-0.662397 0.118551 2.912134 7.394595e-39
-0.662105 0.118879 2.920203 7.394595e-39
-0.661802 0.119208 2.928277 7.394595e-39
-0.661638 0.119564 2.937022 7.302399e-39
-0.661839 0.119988 2.947445 7.302399e-39
-0.662459 0.120491 2.959809 7.394595e-39
-0.663059 0.120994 2.972166 7.394595e-39
-0.663648 0.121499 2.984552 7.394595e-39
-0.664299 0.122018 2.997301 7.394595e-39
-0.665142 0.122575 3.011002 7.302399e-39
-0.666224 0.123181 3.025881 7.302399e-39
-0.667248 0.123780 3.040596 7.302399e-39
-0.668203 0.124370 3.055091 7.394595e-39
-0.669129 0.124959 3.069547 7.302399e-39
-0.671418 0.125807 3.090379 7.302399e-39
-0.675223 0.126945 3.118346 7.302399e-39
-0.678951 0.128077 3.146152 7.302399e-39
-0.682543 0.129191 3.173511 7.302399e-39
-0.685390 0.130171 3.197578 7.302399e-39
-0.687768 0.131068 3.219616 7.302399e-39
-0.685421 0.131068 3.219612 7.302399e-39
-0.703106 0.116859 2.820112 7.302398e-39
-0.701051 0.116859 2.820111 7.486790e-39
-0.698996 0.116859 2.820111 7.486790e-39
-0.698060 0.117047 2.824638 7.394595e-39
-0.696878 0.117194 2.828192 7.394595e-39
-0.695810 0.117361 2.832232 7.302399e-39
-0.694787 0.117537 2.836480 7.394595e-39
-0.693786 0.117718 2.840846 7.394595e-39
-0.692430 0.117840 2.843776 7.394595e-39
-0.690581 0.117878 2.844692 7.302399e-39
-0.688728 0.117915 2.845603 7.394595e-39
-0.686876 0.117953 2.846519 7.394595e-39
-0.685027 0.117992 2.847454 7.394595e-39
-0.683431 0.118075 2.849449 7.394595e-39
-0.682353 0.118248 2.853622 7.302399e-39
-0.681527 0.118465 2.858878 7.302399e-39
-0.680688 0.118682 2.864113 7.302399e-39
-0.679845 0.118900 2.869362 7.302399e-39
-0.678803 0.119084 2.873803 7.302399e-39
-0.677475 0.119219 2.877052 7.302399e-39
-0.675949 0.119319 2.879481 7.302399e-39
-0.674415 0.119419 2.881892 7.302399e-39
-0.672885 0.119520 2.884333 7.302399e-39
-0.671367 0.119624 2.886843 7.210203e-39
-0.669871 0.119733 2.889462 7.210203e-39
-0.668396 0.119846 2.892190 7.302399e-39
-0.666911 0.119958 2.894891 7.394595e-39
-0.665420 0.120069 2.897583 7.394595e-39
-0.664087 0.120210 2.900982 7.394595e-39
-0.663302 0.120451 2.906801 7.394595e-39
-0.663012 0.120784 2.914840 7.394595e-39
-0.662710 0.121117 2.922874 7.394595e-39
-0.662398 0.121450 2.930915 7.394595e-39
-0.662221 0.121811 2.939609 7.394595e-39
-0.662403 0.122240 2.949959 7.394595e-39
-0.663006 0.122749 2.962254 7.394595e-39
-0.663595 0.123259 2.974570 7.394595e-39
-0.664154 0.123767 2.986829 7.394595e-39
-0.664793 0.124294 2.999529 7.394595e-39
-0.665670 0.124868 3.013392 7.394595e-39
-0.666825 0.125499 3.028613 7.302399e-39
-0.667926 0.126123 3.043682 7.302399e-39
-0.668945 0.126736 3.058480 7.302399e-39
-0.669934 0.127348 3.073242 7.302399e-39
-0.672282 0.128223 3.094354 7.302399e-39
-0.676226 0.129409 3.122979 7.302399e-39
-0.680081 0.130586 3.151390 7.394595e-39
-0.683815 0.131748 3.179423 7.394595e-39
-0.686778 0.132769 3.204054 7.394595e-39
-0.689181 0.133688 3.226232 7.302399e-39
-0.703211 0.118932 2.820534 7.302398e-39
-0.701155 0.118931 2.820532 7.486790e-39
-0.699100 0.118931 2.820531 7.394595e-39
-0.698195 0.119128 2.825182 7.394595e-39
-0.697034 0.119281 2.828826 7.394595e-39
-0.695992 0.119456 2.832972 7.210203e-39
-0.694991 0.119639 2.837315 7.302399e-39
-0.694019 0.119828 2.841798 7.302399e-39
-0.692710 0.119960 2.844925 7.394595e-39
-0.690906 0.120007 2.846032 7.394595e-39
-0.689102 0.120054 2.847147 7.394595e-39
-0.687297 0.120101 2.848264 7.394595e-39
-0.685494 0.120148 2.849395 7.394595e-39
-0.683937 0.120240 2.851557 7.394595e-39
-0.682872 0.120418 2.855791 7.394595e-39
-0.682052 0.120641 2.861081 7.394595e-39
-0.681225 0.120864 2.866372 7.394595e-39
-0.680396 0.121088 2.871686 7.394595e-39
-0.679360 0.121277 2.876161 7.394595e-39
-0.678046 0.121417 2.879477 7.302398e-39
-0.676541 0.121524 2.882006 7.302398e-39
-0.675034 0.121630 2.884537 7.302398e-39
-0.673523 0.121737 2.887070 7.210202e-39
-0.672020 0.121846 2.889652 7.210203e-39
-0.670527 0.121957 2.892293 7.302398e-39
-0.669047 0.122072 2.895004 7.394593e-39
-0.667556 0.122185 2.897692 7.394595e-39
-0.666059 0.122298 2.900365 7.394595e-39
-0.664719 0.122440 2.903740 7.394595e-39
-0.663926 0.122684 2.909537 7.394593e-39
-0.663625 0.123022 2.917535 7.302399e-39
-0.663315 0.123359 2.925543 7.394593e-39
-0.662993 0.123697 2.933549 7.394595e-39
-0.662805 0.124062 2.942199 7.394595e-39
-0.662982 0.124498 2.952535 7.394595e-39
-0.663565 0.125013 2.964752 7.394595e-39
-0.664130 0.125528 2.976967 7.394595e-39
-0.664682 0.126044 2.989204 7.394595e-39
-0.665298 0.126575 3.001808 7.394595e-39
-0.666215 0.127168 3.015861 7.394595e-39
-0.667451 0.127825 3.031454 7.302399e-39
-0.668620 0.128474 3.046846 7.302399e-39
-0.669721 0.129115 3.062030 7.302399e-39
-0.670777 0.129750 3.077106 7.302399e-39
-0.673190 0.130654 3.098535 7.302399e-39
-0.677285 0.131891 3.127869 7.394595e-39
-0.681276 0.133116 3.156926 7.394595e-39
-0.685160 0.134328 3.185679 7.302399e-39
-0.688283 0.135399 3.211076 7.210203e-39
-0.690707 0.136340 3.233376 7.210203e-39
-0.703316 0.121005 2.820954 7.486429e-39
-0.701260 0.121004 2.820954 7.486430e-39
-0.699205 0.121004 2.820953 7.394595e-39
-0.698329 0.121209 2.825728 7.394595e-39
-0.697191 0.121369 2.829463 7.302399e-39
-0.696172 0.121551 2.833704 7.210203e-39
-0.695196 0.121742 2.838152 7.302399e-39
-0.694252 0.121939 2.842750 7.394595e-39
-0.692988 0.122082 2.846068 7.394595e-39
-0.691231 0.122138 2.847371 7.394595e-39
-0.689472 0.122194 2.848677 7.394595e-39
-0.687715 0.122250 2.849996 7.394595e-39
-0.685960 0.122307 2.851329 7.394595e-39
-0.684440 0.122407 2.853656 7.486790e-39
-0.683387 0.122591 2.857948 7.394595e-39
-0.682578 0.122820 2.863289 7.394595e-39
-0.681762 0.123050 2.868629 7.486790e-39
-0.680934 0.123278 2.873958 7.394595e-39
-0.679918 0.123474 2.878522 7.394595e-39
-0.678616 0.123619 2.881897 7.394593e-39
-0.677135 0.123732 2.884532 7.302399e-39
-0.675650 0.123845 2.887169 7.210203e-39
-0.674161 0.123958 2.889802 7.302398e-39
-0.672678 0.124073 2.892481 7.394593e-39
-0.671186 0.124186 2.895134 7.394593e-39
-0.669697 0.124302 2.897817 7.302399e-39
-0.668200 0.124416 2.900486 7.302399e-39
-0.666698 0.124530 2.903146 7.394595e-39
-0.665352 0.124674 2.906504 7.394595e-39
-0.664545 0.124921 2.912251 7.394593e-39
-0.664242 0.125264 2.920247 7.302398e-39
-0.663920 0.125605 2.928209 7.302399e-39
-0.663592 0.125948 2.936199 7.394595e-39
-0.663388 0.126316 2.944788 7.394595e-39
-0.663553 0.126758 2.955079 7.486790e-39
-0.664117 0.127278 2.967217 7.394595e-39
-0.664675 0.127801 2.979409 7.394595e-39
-0.665201 0.128322 2.991538 7.394595e-39
-0.665801 0.128860 3.004081 7.302399e-39
-0.666756 0.129470 3.018311 7.394595e-39
-0.668070 0.130155 3.034267 7.302399e-39
-0.669328 0.130833 3.050074 7.302399e-39
-0.670492 0.131497 3.065555 7.302399e-39
-0.671615 0.132157 3.080951 7.302399e-39
-0.674109 0.133093 3.102765 7.302399e-39
-0.678331 0.134377 3.132703 7.302399e-39
-0.682470 0.135653 3.162456 7.302399e-39
-0.686570 0.136930 3.192232 7.210203e-39
